   48.00  -121.00  0.98 41.01
   48.00  -120.50  0.98 41.01
   48.00  -120.00  0.55 30.61
   48.00  -119.50  0.55 30.61
   48.00  -119.00  0.61 30.08
   48.00  -118.50  0.61 30.08
   48.00  -118.00  0.71 27.51
   48.00  -117.50  0.71 27.51
   48.00  -117.00  1.01 31.68
   48.00  -116.50  1.01 31.68
   48.00  -116.00  1.35 34.37
   48.00  -115.50  1.35 34.37
   48.00  -115.00  1.19 41.49
   48.00  -114.50  1.19 41.49
   48.00  -114.00  1.74 39.96
   48.00  -113.50  1.74 39.96
   48.00  -113.00  1.58 40.06
   48.00  -112.50  1.58 40.06
   48.00  -112.00  1.18 42.10
   48.00  -111.50  1.18 42.10
   48.00  -111.00  1.18 45.79
   48.00  -110.50  1.18 45.79
   48.00  -110.00  1.07 47.31
   48.00  -109.50  1.07 47.31
   48.00  -109.00  0.92 48.57
   48.00  -108.50  0.92 48.57
   48.00  -108.00  0.84 50.24
   48.50  -121.00  1.50 32.31
   48.50  -120.50  1.50 32.31
   48.50  -120.00  0.94 31.06
   48.50  -119.50  0.94 31.06
   48.50  -119.00  0.99 32.26
   48.50  -118.50  0.99 32.26
   48.50  -118.00  0.97 33.63
   48.50  -117.50  0.97 33.63
   48.50  -117.00  1.10 35.42
   48.50  -116.50  1.10 35.42
   48.50  -116.00  1.27 35.73
   48.50  -115.50  1.27 35.73
   48.50  -115.00  1.36 35.79
   48.50  -114.50  1.36 35.79
   48.50  -114.00  1.66 39.59
   48.50  -113.50  1.66 39.59
   48.50  -113.00  1.27 46.14
   48.50  -112.50  1.27 46.14
   48.50  -112.00  1.05 42.81
   48.50  -111.50  1.05 42.81
   48.50  -111.00  0.91 44.75
   48.50  -110.50  0.91 44.75
   48.50  -110.00  0.97 45.60
   48.50  -109.50  0.97 45.60
   48.50  -109.00  0.86 44.10
   48.50  -108.50  0.86 44.10
   48.50  -108.00  0.76 47.17
   49.00  -121.00  1.50 32.31
   49.00  -120.50  1.50 32.31
   49.00  -120.00  0.94 31.06
   49.00  -119.50  0.94 31.06
   49.00  -119.00  0.99 32.26
   49.00  -118.50  0.99 32.26
   49.00  -118.00  0.97 33.63
   49.00  -117.50  0.97 33.63
   49.00  -117.00  1.10 35.42
   49.00  -116.50  1.10 35.42
   49.00  -116.00  1.27 35.73
   49.00  -115.50  1.27 35.73
   49.00  -115.00  1.36 35.79
   49.00  -114.50  1.36 35.79
   49.00  -114.00  1.66 39.59
   49.00  -113.50  1.66 39.59
   49.00  -113.00  1.27 46.14
   49.00  -112.50  1.27 46.14
   49.00  -112.00  1.05 42.81
   49.00  -111.50  1.05 42.81
   49.00  -111.00  0.91 44.75
   49.00  -110.50  0.91 44.75
   49.00  -110.00  0.97 45.60
   49.00  -109.50  0.97 45.60
   49.00  -109.00  0.86 44.10
   49.00  -108.50  0.86 44.10
   49.00  -108.00  0.76 47.17
   49.50  -121.00  1.43 32.08
   49.50  -120.50  1.43 32.08
   49.50  -120.00  1.18 32.02
   49.50  -119.50  1.18 32.02
   49.50  -119.00  1.30 33.21
   49.50  -118.50  1.30 33.21
   49.50  -118.00  1.44 33.69
   49.50  -117.50  1.44 33.69
   49.50  -117.00  1.57 35.22
   49.50  -116.50  1.57 35.22
   49.50  -116.00  1.40 36.13
   49.50  -115.50  1.40 36.13
   49.50  -115.00  1.68 38.19
   49.50  -114.50  1.68 38.19
   49.50  -114.00  1.17 49.06
   49.50  -113.50  1.17 49.06
   49.50  -113.00  0.99 42.79
   49.50  -112.50  0.99 42.79
   49.50  -112.00  0.88 42.61
   49.50  -111.50  0.88 42.61
   49.50  -111.00  0.97 44.05
   49.50  -110.50  0.97 44.05
   49.50  -110.00  0.98 45.04
   49.50  -109.50  0.98 45.04
   49.50  -109.00  0.94 45.90
   49.50  -108.50  0.94 45.90
   49.50  -108.00  0.83 45.22
   50.00  -121.00  1.43 32.08
   50.00  -120.50  1.43 32.08
   50.00  -120.00  1.18 32.02
   50.00  -119.50  1.18 32.02
   50.00  -119.00  1.30 33.21
   50.00  -118.50  1.30 33.21
   50.00  -118.00  1.44 33.69
   50.00  -117.50  1.44 33.69
   50.00  -117.00  1.57 35.22
   50.00  -116.50  1.57 35.22
   50.00  -116.00  1.40 36.13
   50.00  -115.50  1.40 36.13
   50.00  -115.00  1.68 38.19
   50.00  -114.50  1.68 38.19
   50.00  -114.00  1.17 49.06
   50.00  -113.50  1.17 49.06
   50.00  -113.00  0.99 42.79
   50.00  -112.50  0.99 42.79
   50.00  -112.00  0.88 42.61
   50.00  -111.50  0.88 42.61
   50.00  -111.00  0.97 44.05
   50.00  -110.50  0.97 44.05
   50.00  -110.00  0.98 45.04
   50.00  -109.50  0.98 45.04
   50.00  -109.00  0.94 45.90
   50.00  -108.50  0.94 45.90
   50.00  -108.00  0.83 45.22
   50.50  -121.00  1.10 31.92
   50.50  -120.50  1.10 31.92
   50.50  -120.00  1.00 33.59
   50.50  -119.50  1.00 33.59
   50.50  -119.00  1.32 33.97
   50.50  -118.50  1.32 33.97
   50.50  -118.00  1.54 34.46
   50.50  -117.50  1.54 34.46
   50.50  -117.00  1.81 37.34
   50.50  -116.50  1.81 37.34
   50.50  -116.00  1.84 43.70
   50.50  -115.50  1.84 43.70
   50.50  -115.00  1.61 43.37
   50.50  -114.50  1.61 43.37
   50.50  -114.00  1.02 44.12
   50.50  -113.50  1.02 44.12
   50.50  -113.00  0.83 42.86
   50.50  -112.50  0.83 42.86
   50.50  -112.00  0.75 42.57
   50.50  -111.50  0.75 42.57
   50.50  -111.00  0.73 42.61
   50.50  -110.50  0.73 42.61
   50.50  -110.00  0.72 44.58
   50.50  -109.50  0.72 44.58
   50.50  -109.00  0.71 45.28
   50.50  -108.50  0.71 45.28
   50.50  -108.00  0.74 44.78
   51.00  -121.00  1.10 31.92
   51.00  -120.50  1.10 31.92
   51.00  -120.00  1.00 33.59
   51.00  -119.50  1.00 33.59
   51.00  -119.00  1.32 33.97
   51.00  -118.50  1.32 33.97
   51.00  -118.00  1.54 34.46
   51.00  -117.50  1.54 34.46
   51.00  -117.00  1.81 37.34
   51.00  -116.50  1.81 37.34
   51.00  -116.00  1.84 43.70
   51.00  -115.50  1.84 43.70
   51.00  -115.00  1.61 43.37
   51.00  -114.50  1.61 43.37
   51.00  -114.00  1.02 44.12
   51.00  -113.50  1.02 44.12
   51.00  -113.00  0.83 42.86
   51.00  -112.50  0.83 42.86
   51.00  -112.00  0.75 42.57
   51.00  -111.50  0.75 42.57
   51.00  -111.00  0.73 42.61
   51.00  -110.50  0.73 42.61
   51.00  -110.00  0.72 44.58
   51.00  -109.50  0.72 44.58
   51.00  -109.00  0.71 45.28
   51.00  -108.50  0.71 45.28
   51.00  -108.00  0.74 44.78
   51.50  -121.00  1.17 31.83
   51.50  -120.50  1.17 31.83
   51.50  -120.00  1.29 33.91
   51.50  -119.50  1.29 33.91
   51.50  -119.00  1.51 34.05
   51.50  -118.50  1.51 34.05
   51.50  -118.00  1.79 33.71
   51.50  -117.50  1.79 33.71
   51.50  -117.00  2.01 54.94
   51.50  -116.50  2.01 54.94
   51.50  -116.00  1.91 47.12
   51.50  -115.50  1.91 47.12
   51.50  -115.00  1.20 41.83
   51.50  -114.50  1.20 41.83
   51.50  -114.00  0.93 40.05
   51.50  -113.50  0.93 40.05
   51.50  -113.00  0.85 40.08
   51.50  -112.50  0.85 40.08
   51.50  -112.00  0.78 43.22
   51.50  -111.50  0.78 43.22
   51.50  -111.00  0.74 40.71
   51.50  -110.50  0.74 40.71
   51.50  -110.00  0.70 38.69
   51.50  -109.50  0.70 38.69
   51.50  -109.00  0.66 41.45
   51.50  -108.50  0.66 41.45
   51.50  -108.00  0.60 43.64
   52.00  -121.00  1.17 31.83
   52.00  -120.50  1.17 31.83
   52.00  -120.00  1.29 33.91
   52.00  -119.50  1.29 33.91
   52.00  -119.00  1.51 34.05
   52.00  -118.50  1.51 34.05
   52.00  -118.00  1.79 33.71
   52.00  -117.50  1.79 33.71
   52.00  -117.00  2.01 54.94
   52.00  -116.50  2.01 54.94
   52.00  -116.00  1.91 47.12
   52.00  -115.50  1.91 47.12
   52.00  -115.00  1.20 41.83
   52.00  -114.50  1.20 41.83
   52.00  -114.00  0.93 40.05
   52.00  -113.50  0.93 40.05
   52.00  -113.00  0.85 40.08
   52.00  -112.50  0.85 40.08
   52.00  -112.00  0.78 43.22
   52.00  -111.50  0.78 43.22
   52.00  -111.00  0.74 40.71
   52.00  -110.50  0.74 40.71
   52.00  -110.00  0.70 38.69
   52.00  -109.50  0.70 38.69
   52.00  -109.00  0.66 41.45
   52.00  -108.50  0.66 41.45
   52.00  -108.00  0.60 43.64
   52.50  -121.00  1.49 32.84
   52.50  -120.50  1.49 32.84
   52.50  -120.00  1.64 39.63
   52.50  -119.50  1.64 39.63
   52.50  -119.00  1.79 47.27
   52.50  -118.50  1.79 47.27
   52.50  -118.00  2.11 44.06
   52.50  -117.50  2.11 44.06
   52.50  -117.00  1.76 48.59
   52.50  -116.50  1.76 48.59
   52.50  -116.00  1.21 48.77
   52.50  -115.50  1.21 48.77
   52.50  -115.00  0.97 36.83
   52.50  -114.50  0.97 36.83
   52.50  -114.00  0.86 35.52
   52.50  -113.50  0.86 35.52
   52.50  -113.00  0.77 35.44
   52.50  -112.50  0.77 35.44
   52.50  -112.00  0.72 37.10
   52.50  -111.50  0.72 37.10
   52.50  -111.00  0.68 37.41
   52.50  -110.50  0.68 37.41
   52.50  -110.00  0.66 39.33
   52.50  -109.50  0.66 39.33
   52.50  -109.00  0.62 41.76
   52.50  -108.50  0.62 41.76
   52.50  -108.00  0.58 44.91
   53.00  -121.00  1.49 32.84
   53.00  -120.50  1.49 32.84
   53.00  -120.00  1.64 39.63
   53.00  -119.50  1.64 39.63
   53.00  -119.00  1.79 47.27
   53.00  -118.50  1.79 47.27
   53.00  -118.00  2.11 44.06
   53.00  -117.50  2.11 44.06
   53.00  -117.00  1.76 48.59
   53.00  -116.50  1.76 48.59
   53.00  -116.00  1.21 48.77
   53.00  -115.50  1.21 48.77
   53.00  -115.00  0.97 36.83
   53.00  -114.50  0.97 36.83
   53.00  -114.00  0.86 35.52
   53.00  -113.50  0.86 35.52
   53.00  -113.00  0.77 35.44
   53.00  -112.50  0.77 35.44
   53.00  -112.00  0.72 37.10
   53.00  -111.50  0.72 37.10
   53.00  -111.00  0.68 37.41
   53.00  -110.50  0.68 37.41
   53.00  -110.00  0.66 39.33
   53.00  -109.50  0.66 39.33
   53.00  -109.00  0.62 41.76
   53.00  -108.50  0.62 41.76
   53.00  -108.00  0.58 44.91
   53.50  -121.00  1.50 36.39
   53.50  -120.50  1.50 36.39
   53.50  -120.00  1.76 40.21
   53.50  -119.50  1.76 40.21
   53.50  -119.00  1.75 48.25
   53.50  -118.50  1.75 48.25
   53.50  -118.00  1.28 48.72
   53.50  -117.50  1.28 48.72
   53.50  -117.00  1.06 43.72
   53.50  -116.50  1.06 43.72
   53.50  -116.00  0.89 36.91
   53.50  -115.50  0.89 36.91
   53.50  -115.00  0.76 36.99
   53.50  -114.50  0.76 36.99
   53.50  -114.00  0.71 38.08
   53.50  -113.50  0.71 38.08
   53.50  -113.00  0.68 38.03
   53.50  -112.50  0.68 38.03
   53.50  -112.00  0.66 36.82
   53.50  -111.50  0.66 36.82
   53.50  -111.00  0.63 39.37
   53.50  -110.50  0.63 39.37
   53.50  -110.00  0.61 39.62
   53.50  -109.50  0.61 39.62
   53.50  -109.00  0.64 41.83
   53.50  -108.50  0.64 41.83
   53.50  -108.00  0.61 44.93
   54.00  -121.00  1.50 36.39
   54.00  -120.50  1.50 36.39
   54.00  -120.00  1.76 40.21
   54.00  -119.50  1.76 40.21
   54.00  -119.00  1.75 48.25
   54.00  -118.50  1.75 48.25
   54.00  -118.00  1.28 48.72
   54.00  -117.50  1.28 48.72
   54.00  -117.00  1.06 43.72
   54.00  -116.50  1.06 43.72
   54.00  -116.00  0.89 36.91
   54.00  -115.50  0.89 36.91
   54.00  -115.00  0.76 36.99
   54.00  -114.50  0.76 36.99
   54.00  -114.00  0.71 38.08
   54.00  -113.50  0.71 38.08
   54.00  -113.00  0.68 38.03
   54.00  -112.50  0.68 38.03
   54.00  -112.00  0.66 36.82
   54.00  -111.50  0.66 36.82
   54.00  -111.00  0.63 39.37
   54.00  -110.50  0.63 39.37
   54.00  -110.00  0.61 39.62
   54.00  -109.50  0.61 39.62
   54.00  -109.00  0.64 41.83
   54.00  -108.50  0.64 41.83
   54.00  -108.00  0.61 44.93
   54.50  -121.00  1.40 39.34
   54.50  -120.50  1.40 39.34
   54.50  -120.00  1.17 43.00
   54.50  -119.50  1.17 43.00
   54.50  -119.00  0.96 48.49
   54.50  -118.50  0.96 48.49
   54.50  -118.00  0.90 46.10
   54.50  -117.50  0.90 46.10
   54.50  -117.00  0.90 40.14
   54.50  -116.50  0.90 40.14
   54.50  -116.00  0.93 38.43
   54.50  -115.50  0.93 38.43
   54.50  -115.00  0.68 39.87
   54.50  -114.50  0.68 39.87
   54.50  -114.00  0.65 39.46
   54.50  -113.50  0.65 39.46
   54.50  -113.00  0.62 38.33
   54.50  -112.50  0.62 38.33
   54.50  -112.00  0.62 40.38
   54.50  -111.50  0.62 40.38
   54.50  -111.00  0.61 42.39
   54.50  -110.50  0.61 42.39
   54.50  -110.00  0.58 42.23
   54.50  -109.50  0.58 42.23
   54.50  -109.00  0.53 41.95
   54.50  -108.50  0.53 41.95
   54.50  -108.00  0.48 41.97
   55.00  -121.00  1.40 39.34
   55.00  -120.50  1.40 39.34
   55.00  -120.00  1.17 43.00
   55.00  -119.50  1.17 43.00
   55.00  -119.00  0.96 48.49
   55.00  -118.50  0.96 48.49
   55.00  -118.00  0.90 46.10
   55.00  -117.50  0.90 46.10
   55.00  -117.00  0.90 40.14
   55.00  -116.50  0.90 40.14
   55.00  -116.00  0.93 38.43
   55.00  -115.50  0.93 38.43
   55.00  -115.00  0.68 39.87
   55.00  -114.50  0.68 39.87
   55.00  -114.00  0.65 39.46
   55.00  -113.50  0.65 39.46
   55.00  -113.00  0.62 38.33
   55.00  -112.50  0.62 38.33
   55.00  -112.00  0.62 40.38
   55.00  -111.50  0.62 40.38
   55.00  -111.00  0.61 42.39
   55.00  -110.50  0.61 42.39
   55.00  -110.00  0.58 42.23
   55.00  -109.50  0.58 42.23
   55.00  -109.00  0.53 41.95
   55.00  -108.50  0.53 41.95
   55.00  -108.00  0.48 41.97
   55.50  -121.00  0.87 39.13
   55.50  -120.50  0.87 39.13
   55.50  -120.00  0.77 38.23
   55.50  -119.50  0.77 38.23
   55.50  -119.00  0.64 37.81
   55.50  -118.50  0.64 37.81
   55.50  -118.00  0.62 40.38
   55.50  -117.50  0.62 40.38
   55.50  -117.00  0.67 40.33
   55.50  -116.50  0.67 40.33
   55.50  -116.00  0.69 39.85
   55.50  -115.50  0.69 39.85
   55.50  -115.00  0.69 39.86
   55.50  -114.50  0.69 39.86
   55.50  -114.00  0.65 39.44
   55.50  -113.50  0.65 39.44
   55.50  -113.00  0.61 40.39
   55.50  -112.50  0.61 40.39
   55.50  -112.00  0.65 40.35
   55.50  -111.50  0.65 40.35
   55.50  -111.00  0.62 42.38
   55.50  -110.50  0.62 42.38
   55.50  -110.00  0.58 42.42
   55.50  -109.50  0.58 42.42
   55.50  -109.00  0.46 40.55
   55.50  -108.50  0.46 40.55
   55.50  -108.00  0.45 38.64
   56.00  -121.00  0.87 39.13
   56.00  -120.50  0.87 39.13
   56.00  -120.00  0.77 38.23
   56.00  -119.50  0.77 38.23
   56.00  -119.00  0.64 37.81
   56.00  -118.50  0.64 37.81
   56.00  -118.00  0.62 40.38
   56.00  -117.50  0.62 40.38
   56.00  -117.00  0.67 40.33
   56.00  -116.50  0.67 40.33
   56.00  -116.00  0.69 39.85
   56.00  -115.50  0.69 39.85
   56.00  -115.00  0.69 39.86
   56.00  -114.50  0.69 39.86
   56.00  -114.00  0.65 39.44
   56.00  -113.50  0.65 39.44
   56.00  -113.00  0.61 40.39
   56.00  -112.50  0.61 40.39
   56.00  -112.00  0.65 40.35
   56.00  -111.50  0.65 40.35
   56.00  -111.00  0.62 42.38
   56.00  -110.50  0.62 42.38
   56.00  -110.00  0.58 42.42
   56.00  -109.50  0.58 42.42
   56.00  -109.00  0.46 40.55
   56.00  -108.50  0.46 40.55
   56.00  -108.00  0.45 38.64
   56.50  -121.00  0.70 39.30
   56.50  -120.50  0.70 39.30
   56.50  -120.00  0.77 37.48
   56.50  -119.50  0.77 37.48
   56.50  -119.00  0.73 37.52
   56.50  -118.50  0.73 37.52
   56.50  -118.00  0.57 38.93
   56.50  -117.50  0.57 38.93
   56.50  -117.00  0.66 38.39
   56.50  -116.50  0.66 38.39
   56.50  -116.00  0.61 38.12
   56.50  -115.50  0.61 38.12
   56.50  -115.00  0.65 37.62
   56.50  -114.50  0.65 37.62
   56.50  -114.00  0.56 40.44
   56.50  -113.50  0.56 40.44
   56.50  -113.00  0.51 40.49
   56.50  -112.50  0.51 40.49
   56.50  -112.00  0.52 40.48
   56.50  -111.50  0.52 40.48
   56.50  -111.00  0.47 40.52
   56.50  -110.50  0.47 40.52
   56.50  -110.00  0.48 40.52
   56.50  -109.50  0.48 40.52
   56.50  -109.00  0.44 40.56
   56.50  -108.50  0.44 40.56
   56.50  -108.00  0.47 40.53
   57.00  -121.00  0.70 39.30
   57.00  -120.50  0.70 39.30
   57.00  -120.00  0.77 37.48
   57.00  -119.50  0.77 37.48
   57.00  -119.00  0.73 37.52
   57.00  -118.50  0.73 37.52
   57.00  -118.00  0.57 38.93
   57.00  -117.50  0.57 38.93
   57.00  -117.00  0.66 38.39
   57.00  -116.50  0.66 38.39
   57.00  -116.00  0.61 38.12
   57.00  -115.50  0.61 38.12
   57.00  -115.00  0.65 37.62
   57.00  -114.50  0.65 37.62
   57.00  -114.00  0.56 40.44
   57.00  -113.50  0.56 40.44
   57.00  -113.00  0.51 40.49
   57.00  -112.50  0.51 40.49
   57.00  -112.00  0.52 40.48
   57.00  -111.50  0.52 40.48
   57.00  -111.00  0.47 40.52
   57.00  -110.50  0.47 40.52
   57.00  -110.00  0.48 40.52
   57.00  -109.50  0.48 40.52
   57.00  -109.00  0.44 40.56
   57.00  -108.50  0.44 40.56
   57.00  -108.00  0.47 40.53
   57.50  -121.00  0.75 40.25
   57.50  -120.50  0.75 40.25
   57.50  -120.00  0.80 36.70
   57.50  -119.50  0.80 36.70
   57.50  -119.00  0.70 36.80
   57.50  -118.50  0.70 36.80
   57.50  -118.00  0.50 40.50
   57.50  -117.50  0.50 40.50
   57.50  -117.00  0.54 43.46
   57.50  -116.50  0.54 43.46
   57.50  -116.00  0.56 45.44
   57.50  -115.50  0.56 45.44
   57.50  -115.00  0.50 40.50
   57.50  -114.50  0.50 40.50
   57.50  -114.00  0.66 40.34
   57.50  -113.50  0.66 40.34
   57.50  -113.00  0.65 40.35
   57.50  -112.50  0.65 40.35
   57.50  -112.00  0.35 40.65
   57.50  -111.50  0.35 40.65
   57.50  -111.00  0.45 40.55
   57.50  -110.50  0.45 40.55
   57.50  -110.00  0.52 40.48
   57.50  -109.50  0.52 40.48
   57.50  -109.00  0.51 40.49
   57.50  -108.50  0.51 40.49
   57.50  -108.00  0.52 40.48
   58.00  -121.00  0.75 40.25
   58.00  -120.50  0.75 40.25
   58.00  -120.00  0.80 36.70
   58.00  -119.50  0.80 36.70
   58.00  -119.00  0.70 36.80
   58.00  -118.50  0.70 36.80
   58.00  -118.00  0.50 40.50
   58.00  -117.50  0.50 40.50
   58.00  -117.00  0.54 43.46
   58.00  -116.50  0.54 43.46
   58.00  -116.00  0.56 45.44
   58.00  -115.50  0.56 45.44
   58.00  -115.00  0.50 40.50
   58.00  -114.50  0.50 40.50
   58.00  -114.00  0.66 40.34
   58.00  -113.50  0.66 40.34
   58.00  -113.00  0.65 40.35
   58.00  -112.50  0.65 40.35
   58.00  -112.00  0.35 40.65
   58.00  -111.50  0.35 40.65
   58.00  -111.00  0.45 40.55
   58.00  -110.50  0.45 40.55
   58.00  -110.00  0.52 40.48
   58.00  -109.50  0.52 40.48
   58.00  -109.00  0.51 40.49
   58.00  -108.50  0.51 40.49
   58.00  -108.00  0.52 40.48
